0.000000 -1.000000 0.000000 0.102400 -0.943500 0.315100
0.723607 -0.447220 0.525725 0.700200 -0.661700 0.268000
-0.276388 -0.447220 0.850649 -0.268000 -0.943500 0.194700
-0.894426 -0.447216 0.000000 -0.268000 -0.943500 -0.194700
-0.276388 -0.447220 -0.850649 0.102400 -0.943500 -0.315100
0.723607 -0.447220 -0.525725 0.905000 -0.330400 0.268000
0.276388 0.447220 0.850649 0.024700 -0.330400 0.943500
-0.723607 0.447220 0.525725 -0.889700 -0.330400 0.315100
-0.723607 0.447220 -0.525725 -0.574600 -0.330400 -0.748800
0.276388 0.447220 -0.850649 0.534600 -0.330400 -0.777900
0.894426 0.447216 0.000000 0.802600 -0.125600 0.583100
0.000000 1.000000 0.000000 -0.306600 -0.125600 0.943500
-0.162456 -0.850654 0.499995 -0.992100 -0.125600 0.000000
0.425323 -0.850654 0.309011 -0.306600 -0.125600 -0.943500
0.262869 -0.525738 0.809012 0.802600 -0.125600 -0.583100
0.850648 -0.525736 0.000000 0.408900 0.661700 0.628400
0.425323 -0.850654 -0.309011 -0.471300 0.661700 0.583100
-0.525730 -0.850652 0.000000 -0.700200 0.661700 -0.268000
-0.688189 -0.525736 0.499997 0.038500 0.661700 -0.748800
-0.162456 -0.850654 -0.499995 0.724000 0.661700 -0.194700
-0.688189 -0.525736 -0.499997 0.268000 0.943500 -0.194700
0.262869 -0.525738 -0.809012 0.491100 0.794700 -0.356800
0.951058 0.000000 0.309013 0.408900 0.661700 -0.628400
0.951058 0.000000 -0.309013 -0.102400 0.943500 -0.315100
0.000000 0.000000 1.000000 -0.187600 0.794700 -0.577300
0.587786 0.000000 0.809017 -0.471300 0.661700 -0.583100
-0.951058 0.000000 0.309013 -0.331300 0.943500 0.000000
-0.587786 0.000000 0.809017 -0.607100 0.794700 0.000000
-0.587786 0.000000 -0.809017 -0.700200 0.661700 0.268000
-0.951058 0.000000 -0.309013 -0.102400 0.943500 0.315100
0.587786 0.000000 -0.809017 -0.187600 0.794700 0.577300
0.000000 0.000000 -1.000000 0.038500 0.661700 0.748800
0.688189 0.525736 0.499997 0.268000 0.943500 0.194700
-0.262869 0.525738 0.809012 0.491100 0.794700 0.356800
-0.850648 0.525736 0.000000 0.724000 0.661700 0.194700
-0.262869 0.525738 -0.809012 0.889700 0.330400 -0.315100
0.688189 0.525736 -0.499997 0.794700 0.187600 -0.577300
0.162456 0.850654 0.499995 0.574600 0.330400 -0.748800
0.525730 0.850652 0.000000 -0.024700 0.330400 -0.943500
-0.425323 0.850654 0.309011 -0.303500 0.187600 -0.934200
-0.425323 0.850654 -0.309011 -0.534600 0.330400 -0.777900
0.162456 0.850654 -0.499995 -0.905000 0.330400 -0.268000


